-0.021431 0.311470 0.219715 -4.987918 2.447961 2.756651 
0.189123 -0.395491 0.113310 -3.848815 3.519365 -3.427321 
0.180280 0.036860 0.138480 6.236133 0.410864 0.344356 
0.328940 0.162254 0.068547 -1.762200 -3.838526 4.558714 
-0.162353 -0.395040 0.155425 -3.974964 2.317707 4.210958 
0.051608 0.169061 -0.023529 0.015667 0.775473 -5.689242 
0.010821 0.332163 0.235772 -0.826421 2.884677 5.301714 
0.366822 0.394983 -0.179214 -4.264563 2.861642 3.433918 
-0.051724 -0.270475 0.113864 5.867710 0.935119 2.017039 
-0.131157 -0.378729 0.094512 0.795189 3.396591 -4.936266 
-0.172820 0.188156 -0.079271 4.436430 -4.375612 -0.651559 
-0.303260 0.241499 -0.078821 -5.929508 -0.063046 1.984964 
0.054104 0.237270 -0.215717 -1.220225 5.506282 -2.729376 
-0.245115 0.355716 -0.217577 -3.787567 0.125489 -4.951434 
0.112817 0.220185 -0.139347 4.195233 -2.235389 3.983279 
0.000386 0.379331 0.024691 -3.801040 3.708578 -3.206951 
0.205699 -0.245655 0.064788 -3.637980 -2.227503 -4.590506 
0.036613 -0.145479 0.327229 -6.212128 0.670583 -0.231240 
0.158503 0.210115 -0.017572 1.216261 0.844023 -6.046090 
0.305394 0.243578 0.042494 -1.335168 6.060019 0.530949 
-0.296481 0.233930 -0.229827 -5.966348 -0.929393 -0.424461 
0.195104 -0.442080 0.137790 0.528816 -6.241756 0.401101 
-0.005992 0.263650 -0.071767 -2.244081 -5.796832 0.691100 
0.367223 0.349953 -0.081226 -5.199965 2.044545 2.841420 
-0.177609 0.259443 0.027047 -1.634621 5.639109 2.096859 
-0.169222 -0.132351 0.074962 -5.968090 0.337864 -1.527923 
0.045826 0.197440 -0.041702 -2.338305 -3.120286 -4.741765 
0.012242 0.234071 -0.050288 -4.163118 -2.668691 -3.828912 
-0.032244 0.190199 -0.029424 -0.428551 2.914366 -5.493027 
0.059649 -0.058706 0.024506 -0.290958 -2.704158 -5.503595 
0.073000 -0.104488 0.267955 2.150106 4.915553 3.254618 
0.375252 0.210593 0.026312 2.621238 -2.059344 5.229836 
0.437162 0.241368 -0.069282 5.670935 -2.268029 -1.148497 
-0.055201 0.098086 0.141562 -5.023533 -3.550639 1.207553 
-0.073113 -0.380590 0.154264 5.107171 -1.232984 3.149753 
-0.172695 -0.186062 0.086547 -5.918165 1.058373 1.804063 
0.000008 0.363068 -0.087784 -0.872619 -0.972363 -6.091449 
0.251252 -0.395998 0.155993 5.500975 2.793695 1.058468 
0.099201 0.322406 -0.126222 0.221447 4.262871 -4.548175 
0.189357 -0.445614 0.114966 0.361135 -6.196855 0.448161 
0.163756 0.365076 0.104653 5.188393 2.988880 -1.414928 
-0.030250 0.018087 0.069822 -4.720767 1.835597 -3.708352 
-0.023907 0.146505 -0.040762 -2.063707 -1.067521 -5.815894 
0.207381 0.128318 0.154497 5.932358 -1.163416 0.947050 
0.181585 0.285595 0.223093 2.163494 1.909858 5.367259 
0.129798 0.250654 0.264349 3.859497 0.760279 4.527289 
0.193850 0.309965 0.035158 5.364818 2.171052 -1.938949 
0.124347 -0.102850 0.180104 -0.442436 -4.852050 3.843113 
-0.081924 -0.276702 0.169445 2.570980 0.809717 5.533233 
-0.170978 0.278710 -0.096888 4.873439 3.027242 -1.894633 
-0.058059 -0.313687 0.137393 5.444754 0.122779 3.033029 
0.151424 0.363066 0.038448 4.542501 4.172668 -0.542899 
-0.189473 0.283710 -0.133083 3.496289 -4.030518 -2.847678 
0.092629 0.079198 0.236338 1.518389 -0.178885 6.075664 
0.206536 0.206085 0.001791 3.312394 -0.441081 -5.283406 
0.179669 -0.093532 0.038672 -1.522004 2.156568 -5.683450 
0.357158 0.220016 -0.087223 -4.632849 1.371253 -0.661073 
0.395819 0.320048 -0.037179 3.213841 4.881021 2.211193 
0.428721 0.306123 -0.197831 2.671854 -4.043997 -3.843013 
0.041196 -0.085894 0.054587 -4.476677 -4.089520 -1.524447 
-0.232631 0.323978 -0.165895 4.497128 3.343413 2.772612 
-0.271277 0.264765 -0.027769 -3.557009 2.183087 4.624169 
-0.161458 -0.294679 0.076351 -3.146467 -3.697584 -3.851130 
0.398073 0.374805 -0.167075 4.203886 -1.664730 -4.186481 
0.338694 0.238316 0.044785 5.075165 3.353454 1.370142 
0.250419 -0.168372 0.147172 3.628553 -2.974390 4.162021 
0.250419 -0.445431 0.167554 2.319780 -4.044178 3.304188 
0.250419 -0.393696 0.124242 1.288191 5.789850 -1.943863 
0.439849 0.281074 -0.093452 5.593238 -1.720164 1.319647 
0.427600 0.347468 -0.108686 5.293663 2.801598 -0.688464 
-0.019889 0.369118 -0.079006 -4.137208 -0.841813 4.564057 
0.127116 0.380831 0.009752 4.348526 3.999577 -1.975204 
-0.040315 -0.142449 0.055599 4.420315 -4.126512 0.906567 
-0.299331 0.242035 -0.207486 -6.175879 -0.788020 0.792879 
0.089669 -0.102141 0.090154 -2.639691 -5.141294 -2.438387 
0.000503 0.339501 -0.025028 -3.863660 4.260811 -0.231198 
0.303923 0.235125 -0.005697 -4.547287 2.787212 -0.591575 
-0.090401 -0.185225 0.150807 0.652108 -2.656028 5.378316 
0.152487 0.295872 -0.054039 5.976915 1.219900 -1.388317 
-0.276701 0.221765 -0.172215 -0.541739 -5.986310 1.773640 
0.239707 -0.433993 0.045676 5.172876 -3.027596 1.634330 
0.209449 -0.391449 0.210866 3.158261 -0.043745 5.319378 
-0.167173 -0.443228 0.133378 1.080953 -6.057065 -1.203443 
-0.060485 0.117900 0.015895 -3.908365 -4.459512 -1.707042 
0.209157 -0.431464 0.048616 -5.652037 -0.645529 -2.310298 
0.052839 -0.091365 0.107638 1.510128 -5.936080 1.144108 
0.097811 0.197082 -0.138139 6.050092 1.086547 -0.863254 
0.365117 0.250863 0.030549 -1.841079 2.720665 5.187213 
-0.113911 -0.075559 0.053150 -1.295979 3.958482 -4.519194 
-0.000977 0.386865 0.144562 -2.655236 5.517067 -0.000290 
0.181737 -0.199968 0.060954 -4.834615 -3.559055 -1.662945 
0.001944 0.339654 -0.076656 -5.983618 -1.037282 1.270914 
-0.171410 -0.286998 0.109269 -5.550184 -2.669042 -0.515608 
0.281238 0.227617 0.112891 4.252817 2.612084 3.789701 
0.167751 0.343079 0.071561 4.890244 3.391438 -1.999532 
0.161423 -0.425498 0.231855 -3.575946 -0.521223 5.064974 
0.243305 -0.154470 0.033640 3.208604 0.078044 -5.324761 
0.101865 -0.016951 0.223976 0.753498 -3.938091 4.758107 
0.033238 0.403794 0.062998 -1.859817 5.832324 0.822926 
0.444027 0.306353 -0.169271 5.946596 0.704604 -1.276929 
0.384551 0.383195 -0.096573 0.018832 5.830190 2.118089 
-0.151408 -0.332534 0.085928 -4.335264 0.222378 -4.417259 
0.199711 -0.291923 0.209356 -0.505293 2.130749 5.870736 
-0.041507 -0.119607 0.044394 2.186172 -2.281543 -5.381997 
0.036271 0.157131 0.267837 -2.085929 -0.113892 5.789419 
0.200781 -0.006349 0.116783 5.983408 1.862899 0.019627 
0.237788 -0.201128 0.040730 -1.300694 0.210474 -6.106099 
0.225912 -0.189917 0.036662 -0.377528 -0.507623 -6.229487 
0.033755 0.399238 0.148568 -0.602826 6.026036 0.497115 
0.104053 0.366490 -0.071308 -0.512711 6.114252 -1.279500 
-0.253587 0.268744 -0.237595 5.089025 -0.478668 -3.339571 
0.217766 -0.332591 0.107198 -1.733252 -3.717178 -4.597619 
-0.041168 -0.147042 0.066580 3.986345 -3.191219 -3.635918 
0.172809 0.292594 -0.014035 4.968553 3.370950 -1.345506 
0.427265 0.256892 0.009846 4.612906 0.148306 4.212451 
-0.068116 -0.180473 0.153306 1.185075 -3.490419 4.809136 
-0.071508 0.000863 0.123831 -4.483871 4.324829 -0.214295 
0.072074 0.006129 0.010556 0.069642 1.017516 -6.167070 
0.027895 0.324572 0.245503 -1.772727 2.171600 5.568788 
0.054276 -0.165588 0.293813 -1.878890 -5.889193 -0.726370 
-0.017272 0.281126 -0.074488 -5.755216 -1.515370 -1.639224 
0.115326 0.232119 -0.122092 5.067161 -0.627623 -3.181265 
0.096749 0.202002 -0.143210 6.123387 0.927636 0.483469 
-0.023568 0.374211 0.106615 -4.232601 4.515262 -0.963222 
-0.282502 0.221893 -0.258848 -3.515121 -5.017703 -0.480026 
0.274011 0.142944 0.085133 1.726466 -5.586285 2.232868 
0.027082 0.404872 0.098448 -2.031579 5.929322 -0.318083 
0.425217 0.327579 -0.086471 5.167855 1.939662 2.895937 
0.098158 0.393435 0.024991 1.481820 5.770088 1.522013 
0.211953 0.301962 0.106164 5.144922 3.439242 0.505400 
0.164465 0.070081 0.052449 5.125396 -3.037358 -1.943905 
0.214305 0.260009 0.026698 4.497848 3.206257 -2.804905 
0.188801 -0.444583 0.225507 0.732223 -5.823385 2.083051 
-0.299572 0.246721 -0.204223 -6.196680 0.346392 -0.639080 
0.105377 0.207070 -0.116600 3.230886 -4.018169 3.420715 
0.208172 0.115673 0.164128 5.693792 1.160998 2.024469 
0.056445 0.187876 -0.149946 -1.447243 -4.853656 -3.647166 
0.360643 0.312341 -0.085989 -5.487687 0.711313 -2.885250 
-0.107774 0.248975 0.132516 -5.539270 1.678810 1.463038 
0.092656 0.022790 0.233591 -0.323097 -0.974223 6.197440 
0.117689 0.283520 0.258890 1.193710 0.294485 6.128210 
0.416729 0.328013 -0.196774 -4.379094 3.439422 1.778476 
-0.066387 -0.237604 0.137467 4.091847 3.039135 3.481758 
0.054319 0.018587 0.007207 -0.815169 -2.001411 -5.867154 
0.133070 0.385524 -0.055579 -0.567139 3.341625 5.221457 
0.179113 -0.056058 0.185007 3.358480 0.211960 5.203261 
0.021335 0.399069 0.080038 -4.233184 4.075960 -1.863119 
0.216898 -0.261423 0.059480 -1.890806 -2.329637 -5.174245 
0.202102 -0.330723 0.107482 0.420399 -3.444472 -5.170906 
0.188392 -0.298025 0.088501 -1.913505 -1.759019 -5.504998 
0.122782 0.397105 -0.095283 -5.093017 3.058942 -1.666789 
-0.102957 0.259920 0.079603 -2.245897 5.744072 0.975858 
-0.274948 0.196195 -0.101496 -4.432630 -4.354656 -0.174435 
0.269592 -0.276178 0.104217 5.709517 -1.463900 -1.168001 
0.120462 0.301665 -0.136903 2.887208 4.982074 -2.226989 
0.010966 0.370915 0.193692 -1.693534 5.443328 2.488737 
-0.158801 -0.385573 0.087698 -0.945060 6.084928 -1.156795 
0.281110 -0.137457 0.102795 6.033400 1.107904 1.077987 
0.397046 0.191540 -0.058691 2.888355 -5.148082 -1.515667 
0.105989 0.278381 0.264084 2.168510 2.504656 5.304384 
-0.246088 0.176544 -0.063764 -1.568250 -5.916070 0.727954 
0.179596 -0.113856 0.191775 -0.642820 -2.903168 5.523122 
0.035138 0.058363 0.236168 -1.193657 -0.977001 6.082523 
0.207631 0.299737 0.046948 3.414030 4.027723 -2.897826 
0.056164 0.046776 0.241967 -1.366718 -1.955844 5.762728 
0.106102 0.217089 -0.087784 5.053738 -3.560766 -0.914759 
-0.045268 -0.105455 0.194725 0.524417 -2.671334 5.631175 
0.280931 0.146062 0.088953 1.277749 -5.159377 3.166473 
-0.124392 -0.170383 0.033599 -0.052627 -1.177534 -6.114119 
-0.210931 -0.409040 0.048898 -3.886080 4.684687 0.888950 
0.144081 0.204813 0.262483 2.856075 1.707972 5.249943 
-0.121764 -0.305920 0.066045 -3.995956 -0.290977 -4.694148 
0.378013 0.348979 -0.071195 -1.906437 2.695997 5.289615 
0.080045 -0.085980 0.068380 1.729772 -4.862040 -3.167737 
-0.134111 0.266091 0.026578 0.155004 6.247841 -0.170401 
-0.040062 0.278670 0.230717 -1.975941 1.810602 5.558327 
0.143349 0.365239 0.172650 3.453821 4.640130 2.266217 
0.326842 0.172333 0.076545 3.392510 -2.119759 4.805000 
0.080660 0.373145 0.210603 1.000823 5.062846 3.486384 
0.415829 0.252867 -0.109656 4.505782 -0.577803 -4.325202 
0.232531 0.198758 0.007546 1.437881 -0.306582 -6.103337 
0.128179 0.341366 0.226021 -0.641674 4.129464 4.518688 
0.066463 -0.094945 0.058126 2.279166 -5.511981 -1.570178 
-0.023190 0.371098 -0.088630 0.066975 -2.028925 -5.930421 
-0.031951 0.364611 0.106768 -5.358280 2.477029 -1.776268 
-0.071068 0.110811 0.105456 -4.975400 -3.716839 0.574150 
0.080691 -0.126667 0.293228 4.850442 3.161718 2.327680 
0.423843 0.297720 -0.034764 4.441154 4.016431 1.858016 
0.231687 -0.179818 0.158902 3.845429 -0.649237 4.846400 
-0.008071 0.351376 -0.086614 -1.312095 -1.113865 -6.018025 
0.142843 0.091866 0.212083 4.285413 -1.027516 4.412613 
-0.048534 0.013361 0.089743 -4.002475 3.600602 -3.198884 
0.195701 -0.385324 0.218007 1.249867 -1.467256 5.960487 
-0.222877 0.313644 -0.270704 4.670887 -0.846652 3.710710 
-0.177904 -0.426948 0.048098 -1.138822 2.388215 -1.825435 
-0.009776 0.302250 -0.082943 -5.423611 1.045090 -2.971749 
0.259379 -0.259482 0.075372 4.513389 -1.313289 -3.713535 
0.069170 -0.164622 0.288769 2.068166 -5.600697 -1.523810 
0.384271 0.350392 -0.150341 -3.579333 -3.326900 -3.878830 
0.276803 -0.128574 0.115930 5.689332 -0.890901 2.338099 
0.084760 0.323251 -0.129124 0.634442 4.262459 -4.499027 
0.261633 -0.158907 0.138750 5.353947 -0.436945 3.233177 
0.031708 0.058649 0.235488 -1.878225 -0.230649 5.963381 
0.164597 0.123044 0.222312 4.338216 0.676858 4.388154 
-0.143398 -0.082440 0.067900 -3.853133 2.932108 -3.862581 
-0.102498 -0.161033 0.164595 -1.447238 -2.584931 5.484736 
0.060747 -0.109892 0.199901 -1.859116 -4.709629 -3.627932 
-0.124174 0.144104 0.056264 -1.044472 -6.065574 0.932134 
0.178370 0.158995 0.228597 5.290924 -1.583461 2.671998 
-0.076655 0.210920 0.198051 -4.759112 -1.915043 3.414828 
-0.187140 -0.437363 0.138410 -3.029176 -1.055870 5.368379 
0.337347 0.239065 0.052654 4.493212 3.923384 1.433961 
-0.246617 0.209729 -0.157185 -1.412013 -3.671280 -4.875971 
0.161155 0.157035 0.239038 3.293339 -1.889774 4.892274 
0.125333 -0.126668 0.145489 -5.146097 -1.239819 3.136225 
0.413793 0.360646 -0.175962 2.804207 5.428986 0.186348 
-0.098526 -0.391155 0.183667 0.944410 3.395779 5.155651 
0.252982 -0.078009 0.148422 5.185828 2.145240 2.710958 
-0.074564 0.117910 0.097415 -5.748322 -2.354553 0.497636 
0.134919 -0.076157 0.199271 0.031433 -2.058095 5.926515 
-0.172978 -0.428299 0.147118 -3.399051 -0.390894 5.248840 
-0.090318 0.294652 0.048587 -4.288730 2.740119 -2.934186 
0.214951 0.258816 0.182853 4.511544 3.205985 2.514509 
0.406734 0.361064 -0.098463 4.575115 3.945776 0.373174 
0.284178 0.143149 0.063881 2.627744 -5.393379 0.202195 
0.035076 0.214921 -0.184038 -5.255245 -2.769709 -1.751174 
0.365071 0.304082 -0.007140 -2.172101 4.636178 3.551649 
0.177684 0.035486 0.151076 6.072975 0.235861 1.489570 
0.247577 -0.253859 0.065267 3.228451 -2.023819 -4.812766 
-0.071223 0.308695 0.048501 -4.927044 3.811954 0.384666 
0.110825 0.369486 0.204570 1.638646 5.112314 3.210400 
0.224522 -0.397234 0.087389 4.075130 4.391991 -1.779257 
0.274946 -0.447197 0.141435 1.632123 -5.875486 0.669123 
0.008159 0.389272 0.136489 -3.625709 4.601078 1.791357 
-0.045754 0.069912 0.083242 -6.032622 -0.396831 -0.893122 
-0.291352 0.287453 -0.087010 -4.278661 4.554736 0.109189 
0.216198 0.172363 0.159344 5.417184 -1.294164 2.631073 
0.067764 -0.029403 0.226065 0.213624 -1.887233 5.843277 
0.124223 0.360254 0.002108 2.064342 0.831222 -5.728173 
0.069516 0.236748 0.276355 1.703943 -0.459156 5.959295 
-0.108817 -0.320112 0.069437 -1.388977 -2.020311 -5.764869 
-0.108817 -0.174889 0.154224 -0.385273 -2.363217 5.776707 
-0.108817 0.237850 -0.015924 3.507493 0.487067 -4.982315 
-0.108817 -0.390080 0.096217 2.587265 3.691556 -4.258798 
-0.108817 -0.075525 0.051011 -2.523245 3.838206 -3.830854 
-0.108817 -0.392163 0.093669 2.386272 4.081692 -3.996900 
0.235195 -0.423292 0.067949 2.730028 4.406079 -3.112947 
0.252456 -0.445395 0.108813 -1.193992 -6.101205 0.824880 
0.161829 0.001243 0.064111 3.466233 2.586485 -4.490173 
-0.071488 0.322793 0.136566 -4.729745 3.871864 -0.272094 
0.012422 0.068132 0.010224 -0.029781 -5.603497 -2.731045 
0.190853 -0.409234 0.075464 -3.864187 2.941078 -1.529141 
-0.129018 -0.415262 0.186690 -3.517085 0.625873 5.087185 
-0.094850 -0.255363 0.170235 2.705505 1.920294 5.324510 
-0.269290 0.195344 -0.078041 -4.738539 -4.049529 0.315677 
-0.084711 0.143583 0.147172 -5.628719 -2.261474 -0.711654 
0.023438 0.369948 0.199470 -3.452116 4.875124 1.729280 
0.189214 -0.388654 0.119695 -5.070454 2.851039 -2.161415 
0.056729 0.405006 0.040195 -1.666422 5.961366 -0.793180 
0.237512 -0.147487 0.167846 4.201588 -0.825680 4.578556 
0.151363 -0.418208 0.215329 -5.929498 1.861710 0.790173 
0.180387 -0.179995 0.050593 -4.433235 -1.655587 -4.076771 
0.167538 0.408349 -0.069379 1.513194 2.001400 5.742850 
-0.216580 0.187934 0.030260 -4.664509 -0.946104 3.562675 
-0.034061 0.288513 -0.032818 -4.451738 2.741190 -3.286961 
-0.050789 0.305774 0.198803 -4.524297 1.112440 4.059324 
0.007228 -0.049335 0.211086 -0.110445 0.817541 6.185269 
0.177190 -0.197769 0.070861 -4.891818 -2.374130 -2.940819 
0.220134 -0.190240 0.160007 1.849446 -1.204050 5.826228 
-0.101781 0.272543 0.084825 -5.398108 -2.754250 -1.546636 
-0.033138 -0.124122 0.185440 3.132657 -1.376955 5.175223 
-0.257110 0.183616 -0.074341 -3.378170 -5.197060 0.657403 
0.231457 -0.445587 0.173647 -1.097995 -6.090809 -0.979137 
-0.019494 -0.113461 0.183230 2.333473 -3.077134 4.663786 
0.163122 0.419104 -0.074718 -0.256153 3.706360 5.020648 
0.243041 -0.419212 0.068138 -4.217118 1.864779 -4.236671 
0.002521 0.359663 -0.087803 -1.133784 -0.462573 -6.131000 
0.429972 0.323711 -0.168388 2.062757 5.393270 -2.191858 
-0.287450 0.224482 -0.133348 -5.713278 -1.681317 -1.909733 
-0.051197 0.331365 0.085708 -5.782501 2.052340 -0.860571 
-0.174629 -0.225609 0.112192 -5.752911 1.417294 1.352604 
0.230141 -0.361289 0.209232 2.592149 -3.691173 4.197409 
0.278034 -0.168264 0.104063 6.098866 -1.245021 0.717616 
-0.169244 0.267989 -0.041622 4.008306 3.219327 3.424598 
0.005293 0.070898 0.230739 -2.310845 -3.543060 4.591348 
-0.237774 0.293613 -0.208899 5.856712 -1.583493 -1.368697 
0.324580 0.251455 0.031295 1.264920 6.000794 1.222374 
0.134386 0.340064 -0.098374 5.817821 1.800046 1.476131 
0.183950 0.315565 0.025045 4.067941 0.630459 -4.703283 
0.035696 -0.158419 0.370965 -5.073275 1.986229 2.933975 
-0.203073 -0.444355 0.088005 0.036132 -6.222885 0.153159 
0.039702 0.374638 -0.088965 5.128016 2.900265 -2.144093 
-0.173465 0.241971 0.061741 -5.035079 2.570809 2.448714 
0.100655 0.244655 -0.179406 1.741563 5.670250 -1.926865 
0.229359 -0.442659 0.133030 -0.425928 -6.266205 -0.035852 
0.009460 0.071786 0.233369 -2.220021 -3.049766 4.984132 
0.020962 0.245193 -0.087223 -4.888179 -3.318428 2.022104 
0.058050 0.052607 0.243113 1.123920 -0.438526 6.073637 
0.030599 0.387642 -0.062081 3.270922 5.078848 1.700082 
-0.180540 0.273702 -0.033105 4.059573 3.668489 2.956438 
0.110436 0.226151 -0.068432 4.816183 -3.866270 -0.725551 
0.225107 -0.145748 0.176178 1.813703 -3.042332 5.007695 
0.357786 0.288806 -0.084675 -4.579582 0.484719 -4.265888 
-0.062528 -0.084525 0.037426 1.635205 2.121005 -5.537853 
-0.288365 0.227310 -0.131988 -5.987595 -0.867558 -1.637383 
-0.151695 -0.102682 0.138296 -5.743006 0.483676 2.298924 
-0.139998 -0.121501 0.155753 -4.689786 -1.026409 3.952127 
0.377675 0.399913 -0.124745 1.900525 5.330289 2.571018 
0.294073 0.146597 0.070607 0.865864 -5.772107 2.289505 
0.270710 -0.187522 0.085084 5.306399 -3.317958 0.285927 
-0.026090 0.177198 -0.036556 -1.211251 2.355550 -5.618691 
-0.199930 0.296877 -0.066391 2.638757 5.086779 2.398958 
0.113645 0.263220 -0.137184 3.851224 0.255336 -4.812233 
0.334517 0.277190 0.007074 -2.605735 4.435217 3.473892 
-0.195406 0.276112 -0.121329 2.520657 -3.687087 -4.006011 
0.059245 0.390496 0.178149 -0.442075 5.781280 2.333452 
-0.055231 -0.266110 0.126203 6.174347 0.291417 1.083170 
-0.293431 0.252245 -0.056793 -5.848884 -0.333133 2.248813 
0.167604 0.097635 0.190335 4.322885 -3.320762 2.896641 
0.369495 0.244338 -0.112962 -4.975626 3.391588 1.694559 
-0.160526 -0.169586 0.109746 -5.321239 -1.276302 2.965015 
0.166646 -0.391631 0.212068 -3.808091 3.852121 3.120621 
0.136080 0.373580 0.058500 4.913841 3.731994 -0.594864 
0.260501 -0.210270 0.123645 5.638389 1.523286 2.241352 
-0.087989 -0.405711 0.110562 4.686532 -1.825606 -3.692396 
0.248138 -0.162280 0.034343 3.592129 0.388756 -5.042044 
0.258570 0.151873 0.007184 -1.341664 -3.769649 -4.733859 
-0.233097 0.284427 -0.035177 -1.273262 4.985566 3.320903 
0.071004 0.106673 0.245130 0.370284 -2.395981 5.734256 
0.162215 -0.083273 0.191272 -0.268761 0.673845 6.114595 
0.094464 0.321857 -0.127175 0.996307 4.869636 -3.813929 
-0.271922 0.288066 -0.243664 -2.254800 5.737030 -0.095803 
0.338325 0.166107 0.064184 5.519804 -2.687313 -0.431473 
0.199805 -0.013639 0.090272 5.073861 3.108601 -1.846650 
0.158142 -0.290825 0.100805 -4.852291 -1.437363 -3.561583 
-0.057847 0.336224 0.111760 -3.920838 4.616382 -1.120577 
0.239440 -0.288018 0.075992 2.210390 -1.569781 -5.641690 
0.014479 0.252501 -0.074301 -5.654024 -2.284910 -1.461550 
-0.113041 0.248388 0.094716 -1.916277 5.382773 2.569723 
0.242278 -0.125360 0.169728 3.138070 -0.586883 5.355379 
0.411754 0.328881 -0.066856 4.116305 1.786808 4.304901 
-0.174352 0.264861 -0.008503 0.031732 5.990084 -1.589320 
0.044574 0.370990 -0.087100 2.601122 4.435536 -3.560365 
0.304870 0.164074 -0.012123 -1.921874 -3.017450 -5.131864 
0.149818 0.056833 0.044459 4.267436 -2.664720 -3.705783 
-0.072223 -0.429816 0.191780 4.506665 0.438579 4.268245 
0.049748 0.295226 0.266260 -1.129250 1.740869 5.907403 
-0.216860 0.216476 0.035420 -4.584197 0.122538 3.769784 
-0.049234 0.266574 -0.033763 -2.578681 3.296436 -4.504220 
0.197352 -0.208139 0.053002 -3.528435 -3.492887 -3.752931 
0.380942 0.398406 -0.137102 5.381856 1.811657 -2.281797 
-0.037635 0.299194 -0.004563 -4.539822 3.460181 -2.512717 
0.017267 0.114565 0.247403 -0.976550 -3.795385 4.900288 
-0.007458 0.399780 -0.114290 -4.271154 -4.299049 -1.437226 
0.085033 0.197086 -0.161108 5.768880 0.158596 -1.015175 
-0.250315 0.292342 -0.061482 -1.822806 4.992183 2.927217 
0.134694 0.367648 -0.107470 5.582238 -2.073633 0.637638 
0.220746 -0.043329 0.154718 1.364050 4.971076 3.369308 
-0.048312 0.082489 0.125264 -5.933501 -1.955593 0.375618 
0.092447 0.098217 0.238373 1.931090 -2.323875 5.479002 
0.114965 0.365488 0.208769 2.110593 4.974905 3.048044 
0.141150 0.349472 -0.048855 4.050210 -0.095215 4.778838 
0.181256 0.293574 0.030016 4.458467 0.727293 -4.125507 
-0.072908 0.143284 0.183589 -3.827733 -2.722766 4.130660 
-0.008078 0.264415 -0.060079 0.049328 -6.247547 -0.107411 
0.339941 0.242434 -0.066686 -4.753544 0.393969 -4.057375 
0.169201 -0.414495 0.233033 -1.067737 2.428755 5.542668 
-0.044799 -0.184346 0.116435 3.101081 -4.817188 1.855993 
0.306222 0.191003 -0.041372 -5.292202 -2.851338 -0.591669 
0.254629 0.135713 0.063952 -0.167991 -6.224755 -0.504626 
0.213842 -0.427739 0.207481 4.351610 -1.350530 4.254375 
-0.028154 0.139768 -0.037256 -2.792405 -1.611330 -5.379903 
0.086825 0.273904 -0.163519 2.092482 4.048245 -4.056744 
0.377687 0.380615 -0.135280 -0.350055 -3.009880 -5.210373 
0.192750 -0.042208 0.062609 1.512941 4.613488 -3.944372 
0.335845 0.170790 0.050207 5.696382 -2.190628 -0.278667 
0.036919 0.247147 -0.179582 -2.156954 5.366276 -2.377605 
-0.033655 -0.170029 0.137542 4.026353 -4.452973 1.515734 
0.071978 -0.080970 0.244309 2.073614 4.114985 4.244880 
-0.104311 0.246685 0.121729 -5.966190 -0.861515 -1.363268 
0.026616 -0.064844 0.050398 -1.197910 -3.085213 -5.283730 
0.050660 0.204213 -0.059196 -2.928400 -5.050565 -0.358886 
-0.162507 0.234633 -0.085974 0.756266 1.096578 -5.970066 
0.166611 0.380012 -0.081719 1.557651 -2.018608 -5.713429 
-0.284771 0.246122 -0.146059 -5.734039 -1.258705 1.529370 
0.240593 -0.312274 0.092868 3.143721 -3.354020 -4.227710 
0.198832 0.432079 -0.105306 1.677289 -4.689309 -3.798934 
0.265707 -0.279377 0.127910 5.960996 0.255862 -1.873601 
-0.007341 0.116285 -0.038036 -1.645225 -2.221440 -5.606327 
0.011267 -0.121316 0.119453 3.480459 -4.500947 -2.134297 
0.001824 0.423518 -0.085256 2.405444 4.406322 3.725479 
-0.070891 -0.260622 0.157782 4.256015 1.698920 4.207541 
0.080980 -0.019541 0.224237 0.474292 -2.077818 5.791792 
0.048970 -0.119132 0.294399 -2.478512 5.409624 1.659621 
-0.122355 -0.236027 0.170617 0.981393 3.030087 5.162718 
-0.164213 -0.439775 0.007500 4.383615 -3.586067 -2.497430 
0.038262 -0.098766 0.220618 -6.086926 -0.311216 -0.785563 
-0.140071 -0.327758 0.176790 -2.234474 -0.643428 5.821931 
0.246967 -0.392912 0.116998 2.999984 5.494960 0.264231 
-0.077869 0.306459 0.132019 -4.766933 3.492406 0.671391 
-0.262806 0.232737 -0.245344 5.952904 -1.855794 -0.255420 
-0.164586 0.175685 -0.046201 1.114724 -1.323411 -5.900577 
-0.135270 0.266007 0.028788 1.683919 5.291688 1.472929 
-0.111129 -0.066610 0.180282 -2.634760 2.564321 5.061038 
0.248945 -0.408732 0.069584 -2.577501 4.820652 -2.338897 
0.003557 0.265758 0.260153 1.101789 1.078827 6.084881 
-0.158909 -0.223718 0.050167 -2.659771 0.113576 -5.631663 
-0.230359 -0.447310 0.016742 0.620205 -6.197225 0.051730 
0.200596 -0.226882 0.173279 -1.008078 4.984937 3.486247 
0.349532 0.294434 -0.071520 -4.088210 0.474239 -4.458870 
0.313904 0.266425 -0.006372 -5.190418 1.739132 2.921098 
-0.249116 0.301655 -0.256843 -0.995936 -5.103108 -3.410234 
0.406007 0.193795 -0.003647 2.337337 -5.616827 0.825807 
0.105994 0.276493 0.265276 1.247095 3.724195 4.865428 
-0.076331 -0.371593 0.116372 3.302356 -4.317218 -2.752257 
-0.184366 0.179516 -0.084752 3.042398 -4.705534 -2.709778 
0.157894 -0.029406 0.194771 2.216031 0.815619 5.664900 
0.212017 0.223252 0.195835 4.055437 0.534060 4.606943 
-0.259208 0.346440 -0.186058 -1.483687 6.018935 0.752060 
0.011796 -0.127365 0.133949 4.977129 -3.682526 0.866399 
0.151500 -0.423563 0.173492 -5.855586 0.396712 -2.219940 
0.362833 0.200346 0.028413 3.813783 -2.327904 4.265676 
0.156562 0.375206 -0.059417 2.706612 0.474562 5.639565 
0.360205 0.318106 -0.080706 -5.713029 1.885542 -1.742320 
0.257118 -0.065380 0.116305 6.124040 0.801627 -1.022398 
-0.104498 0.247196 0.114167 -5.955729 1.251222 1.370330 
-0.040641 0.088588 0.168364 -5.563262 -1.714839 2.082454 
-0.016581 0.073253 0.025211 -2.995336 -5.466889 -0.163865 
0.157777 0.047535 0.200678 5.341361 0.961065 3.069642 
0.224652 -0.030473 0.096250 3.099645 4.877913 -2.231492 
0.055274 0.210671 -0.218291 -1.394703 -5.194535 -2.914878 
0.201095 -0.283511 0.075248 -2.621279 -2.122238 -5.044210 
-0.287749 0.255890 -0.135657 -4.609261 0.657898 -4.194531 
0.194117 0.301090 0.032957 4.533490 -1.554882 -3.442955 
0.443624 0.286013 -0.110655 6.032130 -1.318215 1.129352 
-0.235055 0.363754 -0.202413 1.398357 4.084797 4.451343 
-0.210719 0.201574 0.037108 -2.329736 -1.147580 5.698060 
-0.264356 0.329472 -0.157021 -0.205461 5.343492 3.039550 
0.211378 -0.442114 0.119871 0.066147 -6.258110 0.423657 
0.422906 0.284426 -0.168819 -0.048380 -4.701186 -4.120458 
-0.225889 0.316950 -0.176776 6.193297 0.703933 -0.307146 
0.041319 0.177634 0.274206 -0.680072 -1.030685 6.110791 
0.342597 0.309059 -0.068492 -3.857364 1.755785 -4.578822 
0.131362 0.348225 -0.094190 6.071635 0.128320 1.438418 
-0.082584 0.303348 0.061875 -2.808144 5.578960 -0.084441 
0.336091 0.214862 -0.062157 -3.849619 0.860315 -4.682642 
0.222491 -0.404746 0.074579 3.257996 4.010625 -3.314813 
-0.223829 0.301082 -0.160933 6.128355 -0.598257 -1.063833 
-0.169901 0.257017 -0.031183 3.121010 3.680117 0.287561 
-0.116070 -0.324115 0.071705 0.053879 -0.166801 -6.203882 
-0.069427 0.136731 0.021344 -5.899738 -2.019373 -0.633429 
-0.014525 0.103631 0.217958 -3.468028 -2.609051 4.468244 
-0.179717 -0.230940 0.108955 -4.765639 3.726873 0.591225 
-0.227303 -0.412116 0.080538 -0.896224 6.039780 -0.839160 
-0.125871 -0.131234 0.030103 0.116037 0.008965 -6.183589 
-0.152737 -0.378304 0.101814 -1.959893 4.825402 -3.424607 
0.218449 -0.047749 0.159817 1.064341 4.425699 4.296165 
0.432800 0.286265 -0.051897 5.364976 3.151540 -0.212462 
0.194600 -0.117924 0.190964 0.855907 -0.199502 6.206862 
-0.022671 0.229129 0.259913 -2.950859 0.394170 5.489171 
0.352491 0.171300 0.016166 4.330727 -4.365885 1.239328 
0.251838 -0.310269 0.192163 4.447904 0.351282 4.392122 
-0.147936 -0.182805 0.127410 -4.513880 0.344577 4.296959 
0.334596 0.248488 0.033601 -1.015118 4.935610 3.458493 
0.091431 0.066991 0.236658 -3.238004 1.278626 4.930543 
0.040618 0.332138 0.247609 -1.149303 1.259304 6.001982 
0.160561 0.245380 0.252675 3.622919 0.996982 5.028464 
0.271338 0.220063 -0.001691 -2.171676 -1.935060 -5.243456 
0.289444 -0.442009 0.026661 2.461061 1.082064 -4.976285 
-0.192894 0.297778 -0.089771 2.067460 5.634885 1.753671 
-0.192894 0.161417 -0.013761 -3.309175 -4.106118 -3.290867 
-0.192894 0.186895 -0.102258 3.333272 0.853628 -5.178736 
-0.192894 0.283196 -0.135631 2.343554 -4.616835 -3.110883 
-0.192894 0.260780 0.019419 -0.561937 5.292476 3.326597 
0.028871 0.222654 -0.154365 -3.922440 -4.851443 0.392916 
-0.166401 -0.407263 0.055881 -1.947514 5.470431 -2.016027 
0.201461 0.111507 0.075003 5.596361 -2.641981 0.141352 
0.160674 -0.352580 0.198144 -5.528225 -0.148323 2.614906 
0.357211 0.275582 0.017416 0.154047 3.880284 4.904763 
0.402086 0.360037 -0.077909 3.645892 3.529472 3.635281 
-0.133888 -0.412432 0.045386 4.335646 2.529855 -3.675671 
0.256281 -0.175660 0.137081 3.856669 -2.946918 3.930224 
0.395872 0.200561 -0.079686 2.803492 -4.671961 -2.746254 
-0.059681 0.239655 -0.031024 -3.912651 0.424316 -4.848868 
0.227191 0.162518 0.017847 0.620145 -2.210557 -5.763363 
-0.167425 0.174817 -0.045980 -0.502021 -2.309880 -5.758103 
-0.259901 0.253126 -0.229704 5.456243 -1.261499 -2.497351 
-0.286573 0.294679 -0.156935 -5.719208 1.167892 2.118217 
0.314816 0.273317 -0.016419 -4.903678 3.730719 0.916736 
0.087616 0.404000 0.017555 1.468287 5.884186 1.199898 
0.013358 0.388611 0.010515 -1.539622 5.903063 0.668113 
0.006641 0.373978 -0.099726 -5.618238 -2.470901 -1.249471 
-0.012146 0.330037 -0.026740 -5.002831 3.438027 -0.035838 
-0.177225 -0.390187 0.074564 -0.712615 5.948309 -1.195626 
0.071975 0.244470 0.276039 -0.700548 0.547889 6.103870 
0.144106 0.269696 -0.097239 5.465829 0.817273 -2.956285 
-0.076182 -0.346706 0.164686 4.689371 -0.201548 4.076987 
-0.027106 0.003136 0.060636 -4.330196 0.772964 -4.397772 
-0.175052 -0.401170 0.059517 1.140616 4.204054 -4.326165 
-0.157044 0.244557 -0.080199 4.994582 0.505392 -3.631005 
-0.065331 -0.107177 0.035779 1.253985 1.728916 -5.890456 
-0.096870 0.263328 0.075834 -4.787859 2.720914 -0.919708 
-0.282878 0.207001 -0.091886 -4.703502 -4.073720 0.254783 
-0.172685 0.263328 -0.033720 5.304845 1.648661 0.971475 
-0.131590 -0.255554 0.180565 0.600379 0.480823 6.072743 
0.028248 0.401560 0.134542 -1.652840 5.324418 2.748978 
-0.061211 -0.298204 0.147138 5.912172 0.433229 2.055917 
0.049874 -0.145105 0.366835 0.850940 4.678669 4.003823 
0.082094 0.016158 0.006398 0.535818 -1.905882 -5.873842 
0.151014 0.166510 0.249467 2.710760 -1.242387 5.515030 
0.105165 0.131685 0.256658 -2.289129 -4.319588 3.735307 
0.117138 0.237974 -0.119939 4.740468 -2.259312 -1.039604 
0.167578 0.342497 0.020813 5.084519 3.129541 -1.307224 
0.175657 -0.374491 0.144870 -4.297285 -1.382492 -4.179307 
0.418432 0.275088 -0.160551 -1.181106 -4.598820 -3.390290 
0.376574 0.187004 -0.076556 2.640234 -5.056877 -2.563590 
0.016029 0.395741 0.087893 -2.934130 5.120885 -0.802220 
0.108992 0.206907 -0.171491 3.352327 -4.064994 0.426167 
-0.287391 0.225162 -0.182863 -2.998666 -5.365460 1.151201 
-0.177587 0.283753 -0.100357 4.582047 4.068171 -0.932523 
-0.004981 0.269864 -0.105681 -5.324222 -0.265565 -3.040108 
0.269138 -0.240159 0.106429 5.625920 2.216263 -1.583618 
-0.028733 0.421299 -0.135628 -4.359231 -4.212584 0.024476 
-0.213783 0.227004 0.020936 -5.764484 1.678418 -1.798057 
0.149114 -0.306756 0.170261 -5.849751 0.857365 1.586918 
-0.105050 -0.230061 0.162548 1.989627 2.804243 5.220581 
0.372712 0.396104 -0.189134 3.023914 3.566457 -3.960261 
0.372712 0.242946 -0.120901 -1.066339 -0.205526 -5.779371 
0.372712 0.171608 -0.021669 0.354235 -5.832716 1.451351 
0.372712 0.329570 -0.063094 -3.067309 1.843419 5.063753 
0.372712 0.174610 -0.003146 2.558948 -5.644559 0.774315 
0.185325 -0.440020 0.092269 -5.592133 -2.259718 -1.580344 
0.319091 0.251692 0.029422 -2.466670 5.307506 1.181613 
0.289207 -0.417261 0.113469 5.041346 3.388918 1.419795 
0.434930 0.288946 -0.087353 4.917421 1.284823 3.661070 
-0.106300 0.147212 0.039482 1.654354 -5.813399 -0.101092 
-0.122249 -0.437258 0.190702 -2.625211 -0.747411 5.628874 
-0.279556 0.221117 -0.266724 -3.523720 -4.920243 -1.083673 
-0.006313 0.041629 0.044071 -4.338204 -1.256587 -4.283336 
0.031861 0.270601 -0.146605 -3.234759 -3.474794 -3.650633 
0.033224 0.384032 -0.097034 5.806653 2.036818 -1.165162 
0.094161 0.392966 0.169446 1.080307 5.778352 2.061897 
0.077223 -0.146197 0.325137 5.996020 0.811191 1.328200 
0.383564 0.304798 -0.121472 -5.256373 -1.061545 -3.272145 
-0.076743 -0.089204 0.196869 -0.016698 0.604133 6.229685 
-0.132326 0.176363 0.102058 -2.591367 -2.312218 5.136671 
-0.060487 0.296154 0.022442 -3.865907 3.867004 -2.895585 
0.214525 -0.127191 0.029597 -0.130480 -0.124813 -6.177273 
-0.186044 -0.397057 0.127476 -4.700432 2.331775 3.443127 
-0.194513 0.204411 -0.097571 4.351750 -2.717614 -3.507304 
-0.035940 -0.093200 0.196449 0.574320 -0.815541 6.148332 
0.161780 -0.247947 0.156283 -4.897974 3.205531 2.254789 
0.421103 0.273254 -0.157080 0.863458 -5.466499 -2.595488 
0.027948 0.277107 -0.145916 -4.677996 -1.371846 -3.742570 
0.206379 -0.022764 0.128173 2.081305 5.716852 1.371421 
0.438446 0.261051 -0.078502 5.979440 -0.049342 -1.884920 
0.047919 -0.165339 0.326348 -3.227172 -4.853176 1.281960 
-0.006301 0.154203 -0.045557 -0.574735 -0.134927 -6.207719 
0.069156 0.167154 -0.030322 -0.436494 -2.154815 -5.866939 
0.377556 0.374243 -0.131591 -4.107556 -2.217163 -4.056946 
0.066948 0.184276 -0.155848 2.597546 -4.626956 -2.530753 
-0.182154 -0.427116 0.045255 2.341700 3.290982 -4.776844 
-0.173004 0.197854 0.079225 -4.549170 -0.652638 4.233682 
-0.112538 -0.446018 0.095273 2.070584 -5.843520 -0.476500 
0.146007 0.350506 0.207147 3.108137 4.387667 3.193937 
-0.135024 0.148103 0.008828 0.505182 -6.081238 -1.091696 
0.332046 0.265814 0.015847 -1.643503 3.741541 4.719615 
0.047915 -0.087180 0.155566 -0.246034 -6.038640 -0.723032 
0.103304 0.371294 -0.036720 2.286035 5.839097 -0.337992 
-0.246907 0.233394 -0.182746 5.057855 -3.023803 -1.992807 
0.178971 0.062822 0.109461 6.055429 -0.154773 -1.550358 
0.026726 0.232133 -0.098521 -5.018613 -3.686939 0.098749 
0.091961 0.389660 0.177728 0.934128 5.712918 2.394414 
0.309427 0.185170 0.093631 3.889701 -1.754657 4.502337 
0.428284 0.296045 -0.047728 5.101079 3.637941 -0.135503 
-0.160742 -0.331555 0.159589 -5.156299 -0.956082 3.375019 
0.416618 0.302913 -0.033607 3.872119 4.515849 1.806603 
0.270505 -0.425873 0.084871 4.993822 2.949714 2.361074 
0.255709 -0.444572 0.145141 -1.270609 -6.075237 -0.787395 
0.173567 0.440446 -0.108285 -2.828770 5.428323 -1.265982 
0.237619 -0.415942 0.072728 -0.896914 3.512244 -5.058175 
0.200044 0.286423 0.043100 3.047587 -1.824348 -4.983751 
0.236937 -0.423357 0.184827 3.793299 -0.550872 4.946929 
-0.109703 0.262418 0.024658 0.678374 6.179651 -0.816643 
-0.138112 -0.348737 0.085764 -1.585404 1.988790 -5.626158 
-0.227473 0.170654 -0.069420 -0.566829 -6.197328 -0.420286 
0.015886 0.383814 -0.052566 -1.767857 3.546804 4.850645 
0.013273 -0.125473 0.130931 5.160468 -3.511410 -0.224773 
-0.167981 -0.125572 0.097664 -5.636418 2.414037 -0.508795 
-0.233493 0.286124 -0.183589 5.882171 -0.099977 -2.142214 
0.193164 0.182607 0.223984 4.166806 -1.336834 4.372164 
0.238137 -0.212205 0.039403 -3.341851 0.159829 -5.302704 
-0.065754 0.115730 0.146020 -4.879166 -3.613255 1.361401 
0.070819 -0.005289 0.229689 0.102664 -1.242492 6.129452 
0.208073 -0.039673 0.155339 3.155177 3.324566 4.227438 
0.060597 0.276032 0.269293 -0.154246 0.870177 6.069944 
0.128170 -0.035379 0.203883 1.892099 -0.533652 5.640069 
-0.089004 -0.038060 0.078802 -2.104846 5.310201 -2.490809 
-0.139315 -0.432984 0.177857 -4.236897 -0.998960 4.513149 
0.333580 0.157470 0.053996 5.829321 -2.049445 -0.842370 
-0.071077 -0.208117 0.101525 6.020041 -1.704916 -0.018438 
0.389373 0.226085 -0.113170 2.305518 -2.944052 -4.852880 
-0.030177 0.007183 0.064777 -4.581913 1.105119 -4.069481 
-0.074858 -0.102008 0.198470 -1.289685 -0.616617 6.009200 
-0.055666 0.109369 0.025586 -5.439312 -2.892379 -1.183218 
0.433875 0.324436 -0.151948 5.920456 -0.019180 -1.436674 
-0.052356 0.428190 -0.112404 -4.859735 0.605396 3.908338 
0.264692 -0.265132 0.175430 5.344251 0.582968 3.101125 
-0.105019 0.230101 -0.011046 2.722321 -0.748371 -5.478023 
0.170366 0.293829 0.002464 3.521025 5.097139 -0.386061 
-0.052827 0.105453 0.019103 -5.429149 -2.448167 -1.799052 
-0.061588 0.256188 0.220187 -4.293879 2.211022 3.981369 
0.133196 0.257925 -0.080359 1.475695 -4.975085 3.450937 
-0.126598 -0.219108 0.157787 0.699134 4.358243 4.454534 
-0.295976 0.278060 -0.183450 -6.083186 1.175360 0.787044 
0.077142 0.247644 0.278046 -2.117147 0.724592 5.699612 
0.053990 -0.122973 0.220358 -3.111919 -2.750346 -4.686059 
-0.248359 -0.421523 0.072100 -4.028661 4.461341 1.419904 
0.056926 0.385005 -0.025909 1.029396 6.119610 -0.405357 
0.057997 0.079345 -0.011487 -1.263074 -0.267591 -6.143763 
-0.157117 -0.346610 0.163078 -4.587925 -1.789611 3.847961 
0.268664 -0.190175 0.068191 5.980115 1.005971 -0.710372 
0.242868 -0.076732 0.165248 5.182915 0.897469 3.140978 
-0.041181 -0.175237 0.136377 3.656130 -4.488095 2.256691 
-0.237426 0.329765 -0.207248 3.747241 -2.038434 -4.516157 
-0.226313 -0.432260 0.102113 -4.820017 -0.998054 3.719631 
-0.157491 -0.098070 0.105459 -5.207865 3.448281 -0.548540 
-0.276542 0.219340 -0.260905 -0.662980 -5.787022 0.670909 
0.238113 0.256913 0.118625 3.968940 4.191270 2.449112 
-0.217926 0.171389 -0.040933 -0.222849 -5.245676 3.058381 
-0.175971 -0.234974 0.067600 -4.504503 -1.208279 -4.142448 
-0.256474 0.294983 -0.067690 -1.562747 4.907516 3.455586 
0.276872 -0.212380 0.061802 6.077424 -0.093914 -1.182047 
0.131343 0.296598 -0.102449 4.656350 0.534409 -4.093196 
0.091530 -0.125013 0.256864 6.112626 -0.086493 0.859759 
-0.016896 0.260107 -0.043632 2.071790 -5.620063 -1.299702 
-0.291989 0.292125 -0.174428 -6.180942 0.400983 -0.804953 
-0.194061 -0.398954 0.087045 -4.143198 3.819840 -2.722967 
-0.082213 -0.447103 0.151768 0.279608 -6.144181 -0.063123 
0.179154 0.103428 0.200072 1.826389 -5.818497 0.917699 
-0.068001 -0.017760 0.173964 -2.781708 3.671139 4.202315 
0.032473 0.251823 0.274421 -1.056911 0.797465 6.128078 
0.216063 -0.373767 0.129188 0.530722 0.893415 -5.788169 
0.114939 0.361331 -0.020765 3.116741 5.302570 0.428985 
0.206928 0.297327 0.058937 3.505109 4.561617 1.835663 
-0.242409 0.199849 -0.022376 -2.729123 -3.094880 4.710828 
-0.272197 0.215222 -0.148260 -3.369065 -1.870547 -4.654523 
0.059955 -0.098398 0.261087 -1.573125 4.242008 4.350910 
0.147467 -0.299879 0.126817 -5.500318 -2.028056 -2.169695 
-0.231184 0.253151 -0.163772 4.786784 -1.372286 -3.757410 
-0.039514 -0.091632 0.044458 1.290668 -0.016623 -6.120896 
-0.213857 0.254976 -0.146827 4.316064 -0.886395 -4.463566 
0.035635 -0.049181 0.216558 -3.293392 -0.822932 5.228428 
-0.151818 -0.442249 0.143807 0.864875 -6.175683 -0.599444 
0.261340 -0.399224 0.116672 2.376105 4.861144 -3.036789 
0.039494 0.148721 -0.040616 2.048862 0.819784 -5.834569 
-0.122875 -0.384851 0.092008 2.304675 4.023129 -4.232334 
0.086608 -0.109487 0.219623 4.319255 -3.510403 -2.814185 
0.172675 0.102426 0.002489 4.092401 -3.593378 -3.029271 
-0.185549 0.201133 0.061197 -4.317083 0.048655 4.506109 
-0.254274 0.350745 -0.190499 -2.653032 4.857638 2.881442 
0.068841 0.273981 -0.166127 -0.826699 3.486452 -4.917199 
-0.004751 -0.142439 0.148598 3.967524 -4.344476 2.056393 
0.109141 0.090120 0.232019 1.443886 3.945523 4.376451 
0.087336 0.078253 0.237636 0.564622 -0.642934 6.042455 
0.128820 0.170530 0.261769 4.105108 -0.985998 4.321607 
0.028459 0.296449 -0.153465 -4.391784 -0.640597 -3.597644 
-0.091760 -0.262997 0.171149 2.690252 1.052469 5.568628 
0.164853 -0.099781 0.191594 -2.289871 -1.145804 5.700656 
-0.261707 0.259626 -0.258150 1.490169 -5.253893 -1.691311 
0.423203 0.305741 -0.073946 5.119854 0.945037 3.486883 
0.150154 -0.289759 0.163154 -6.045050 0.565908 1.521546 
-0.037038 0.232925 -0.026898 -0.665540 0.840048 -6.128835 
-0.258868 0.239642 -0.227802 5.302119 -1.272244 -3.064278 
0.155913 -0.359815 0.165497 -5.940365 -1.455732 -1.363088 
-0.040332 0.332872 0.062609 -5.532886 2.335645 -1.765317 
-0.064084 -0.255381 0.147122 5.160819 1.376023 3.236329 
0.146276 -0.164296 0.141303 -3.532713 -4.546264 2.309510 
0.407659 0.374102 -0.145640 5.788019 2.194347 -0.921913 
0.042913 0.047735 0.234866 -1.024998 -1.513684 5.906568 
0.210830 -0.220810 0.164949 0.235484 2.406957 5.637611 
0.413305 0.348260 -0.077108 4.955124 1.507992 3.005575 
0.138309 -0.082058 0.197734 -0.275699 -2.117221 5.849139 
0.027158 0.400791 0.008328 -2.593691 5.614534 -0.423820 
0.035935 0.209116 0.277172 -1.008811 -0.171150 6.182233 
0.365054 0.388804 -0.136321 -4.950981 -3.140100 -2.108878 
-0.239547 0.232457 -0.165696 4.662885 -2.302767 -3.501670 
0.170771 -0.011314 0.058749 2.712663 2.726141 -4.895903 
0.234823 -0.399085 0.189208 4.845366 2.311693 3.222222 
-0.008243 0.329567 -0.048127 -5.214179 3.252817 -0.119464 
-0.088050 -0.268716 0.055311 1.019078 -0.838703 -6.120800 
0.280883 0.246783 0.091455 2.324449 5.060575 2.833757 
-0.054840 0.272325 -0.021466 -3.656584 4.158310 -2.937663 
-0.175059 0.273286 -0.105057 4.211610 -1.527097 -4.150367 
-0.175059 -0.381079 0.121694 -2.755304 5.370633 0.904100 
-0.175059 -0.443228 0.050357 -3.694921 -4.404584 -2.486579 
-0.175059 -0.299729 0.126900 -4.535963 -2.030832 -3.353618 
-0.175059 -0.423479 0.007045 -2.880045 5.137964 -1.689731 
-0.175059 -0.429666 -0.003745 1.182514 3.980238 -4.386072 
-0.175059 -0.253869 0.075419 -5.281023 -1.526765 -2.801006 
-0.175059 0.272562 -0.041363 2.887921 4.948168 2.424100 
-0.175059 -0.218201 0.067380 -4.247423 2.200916 -4.027260 
0.013122 0.355746 -0.022819 -2.281457 5.711709 1.138702 
0.251419 -0.392882 0.132240 2.919902 5.517026 -0.001898 
0.116500 0.388665 0.004377 2.815177 4.012745 -3.739916 
0.365813 0.375694 -0.114404 -6.206720 -0.480798 -0.501232 
-0.178630 -0.246226 0.103860 -5.568672 -0.431054 2.698382 
-0.104341 0.226667 0.147421 -5.211128 0.646906 3.427150 
0.398049 0.336010 -0.168753 -5.491484 -1.730547 -2.252145 
0.099302 0.188107 -0.132283 4.738987 -3.061968 -0.832759 
-0.149493 -0.301747 0.067651 -0.004768 -0.541341 -6.075264 
-0.063344 0.120700 0.026896 -5.421243 -2.742427 -1.042397 
0.269863 -0.277020 0.144610 6.156703 -0.649622 -1.024598 
-0.164581 0.212046 -0.086313 3.297753 0.855121 -5.163886 
0.062829 -0.016392 0.225896 0.159975 -2.353778 5.771185 
-0.057585 0.246389 -0.031208 -4.412656 0.439263 -4.228688 
0.263454 -0.295684 0.122109 5.893544 -0.474694 1.923610 
-0.176831 -0.192695 0.065094 -6.076552 0.842822 1.344361 
0.021750 0.203863 -0.038973 -1.803303 -1.839441 -5.664973 
0.099528 0.362992 0.216136 1.298251 4.899088 3.656299 
-0.299842 0.266807 -0.090027 -6.067719 1.435997 -0.619716 
-0.095907 0.270163 0.153304 -5.709750 1.856672 1.841654 
0.089061 -0.029666 0.223605 1.922084 0.976375 5.706120 
-0.036512 0.238720 -0.027168 2.441378 -2.121658 -5.181574 
0.015567 -0.103632 0.165857 3.200158 -4.389263 3.147237 
-0.023744 0.177973 -0.037142 -2.526784 1.698681 -5.462340 
0.300605 0.229703 0.091546 4.264561 2.727113 3.627620 
0.210270 0.122648 0.075459 4.025306 -4.606218 -1.078216 
-0.006028 0.388545 0.110937 -3.574825 5.136391 -0.448292 
0.330310 0.170816 -0.031596 -2.185081 -5.555342 0.044887 
-0.223559 -0.418352 0.030618 -4.256141 4.514260 0.242056 
-0.173525 -0.223582 0.119626 -5.483803 2.039856 1.934442 
-0.045600 -0.159585 0.072425 3.774392 -3.802241 -3.242356 
-0.018636 0.298827 -0.056552 -4.592025 3.629588 -2.058288 
0.385745 0.358033 -0.074124 -1.616108 2.481386 5.528020 
-0.180195 0.198141 -0.091180 1.102183 0.960098 -6.043034 
-0.046347 0.082376 0.066906 -5.674951 -2.109940 -0.383988 
-0.132788 -0.210188 0.148244 -0.197843 5.364339 2.991570 
0.234602 -0.394058 0.094120 -1.220266 4.406138 -4.242421 
0.039233 0.241780 -0.196331 -2.251524 5.430597 -1.937822 
0.390546 0.181015 -0.010790 3.291953 -5.174366 0.762335 
0.390546 0.347921 -0.209516 -1.254714 -5.275389 -2.738264 
0.390546 0.179599 -0.020981 5.136596 -3.423608 0.427608 
0.390546 0.190650 0.004497 1.395481 -4.369489 4.238552 
-0.062978 -0.274725 0.149239 5.827520 0.431752 2.169808 
0.014232 0.395860 0.096915 -3.294734 4.934714 -0.709726 
0.003426 -0.021946 0.210937 -3.396010 -1.099555 5.164328 
0.342669 0.204729 -0.087223 -5.109984 0.993131 -3.075698 
-0.057787 0.119573 0.007193 -3.947375 -4.268178 -2.161772 
-0.172361 -0.184761 0.035285 -4.600698 0.109675 -4.215105 
0.186156 0.408057 -0.089406 0.932364 -2.961142 -5.398513 
0.067591 -0.131213 0.222118 0.449096 -3.756505 -4.933484 
-0.008905 0.326702 -0.051596 -5.810712 1.765974 -1.383306 
-0.170009 -0.144071 0.073714 -6.018019 0.888784 -1.232689 
0.089412 -0.033883 0.024918 2.957860 -0.967248 -5.261929 
0.270860 -0.164489 0.126023 4.675277 -1.167645 3.720516 
-0.241638 0.278807 -0.279828 4.926939 1.786857 3.098674 
-0.084592 -0.038810 0.176456 -2.755764 3.871169 3.914469 
0.158767 -0.112140 0.188131 -1.890428 -0.757779 5.783901 
-0.079612 -0.348521 0.168531 4.674757 0.038782 4.166464 
0.064862 0.168810 0.275807 -0.081113 -0.742815 6.109664 
0.274248 0.172295 0.120278 3.003598 -2.239634 5.017382 
-0.127392 0.261513 0.001862 1.958496 5.679992 -1.538486 
-0.157276 -0.141712 0.048131 -4.510711 -0.225859 -4.307634 
0.435157 0.331163 -0.155955 5.993418 -0.815965 -1.000255 
-0.033260 -0.178213 0.114087 4.300552 -4.338918 0.249940 
0.169117 0.357590 0.116852 5.942367 1.050460 -1.715305 
-0.018269 0.050501 0.049100 -4.113746 -4.072864 -2.317296 
0.080437 -0.136640 0.241281 4.198291 -4.511790 -1.112006 
-0.048722 0.423804 -0.107354 -4.755273 0.506936 4.053995 
0.086975 0.203395 -0.059108 4.061688 -4.578140 0.633588 
0.196681 -0.123954 0.031453 -0.775831 0.987396 -6.063657 
-0.157066 -0.401596 0.055592 -4.314650 3.589715 -2.634198 
0.218778 0.272608 0.163006 3.988120 2.610215 4.064489 
0.154239 -0.342887 0.181526 -6.109005 -0.906197 1.039649 
0.050973 0.197115 -0.097182 -4.478341 -4.358799 -0.223380 
0.321296 0.256509 -0.040878 -4.733690 0.224450 -4.107104 
0.137624 -0.003038 0.048016 4.054963 2.156534 -4.176360 
0.073962 -0.140249 0.238831 2.226422 -5.321260 -2.369255 
0.083988 -0.044629 0.029136 1.880574 -3.362309 -4.914748 
-0.024826 -0.004978 0.196351 -1.603830 2.305506 5.490454 
0.364937 0.187901 0.015174 2.896922 -3.906557 3.344845 
0.082251 0.378991 -0.015090 3.257567 5.351169 -0.239534 
0.427642 0.342493 -0.112882 5.773465 1.955671 -1.283939 
-0.289780 0.222959 -0.121312 -5.500920 -2.296789 -1.550523 
0.263521 -0.215646 0.039212 3.790678 -0.627077 -4.849120 
0.002445 0.431182 -0.108480 4.460384 4.301962 -0.661698 
0.005463 -0.066085 0.201079 -3.005419 -3.904083 3.848922 
0.331856 0.187625 0.078660 2.526933 -1.230838 5.572352 
0.337517 0.312807 -0.061601 -3.683182 3.884053 -1.786228 
-0.216060 0.303943 -0.133510 1.510036 5.084893 -2.966692 
0.190755 0.446682 -0.103223 -0.258341 5.945748 1.046098 
-0.074102 -0.040153 0.065659 -0.853259 4.201410 -4.480577 
0.156311 -0.074917 0.197006 2.766095 -1.101102 5.391480 
0.204204 -0.276799 0.070739 -2.963831 -3.998079 -3.735820 
0.040487 -0.011974 0.016723 -1.867503 -2.719442 -5.252588 
0.163140 -0.239237 0.139000 -4.970614 3.775860 0.215505 
0.184377 -0.342496 0.114943 -1.702909 -3.534558 -4.730759 
0.179315 0.390378 -0.073556 3.261822 0.199404 5.293964 
0.091916 0.222106 -0.230539 4.502156 -3.074908 -2.969650 
0.137862 0.382628 -0.124716 -3.688246 1.774056 -4.756718 
0.439530 0.292025 -0.171910 4.365487 -3.798634 -1.684323 
-0.242736 0.306889 -0.239313 5.478138 -2.500069 1.744507 
-0.050190 0.292128 0.214145 -4.214814 2.747900 3.726525 
0.176539 -0.377484 0.217193 -2.324192 0.623221 5.639800 
0.187052 -0.442802 0.205203 -0.555570 -6.200059 -0.699797 
0.349713 0.166538 -0.010669 2.846706 -5.444180 -0.682438 
0.154442 0.277573 -0.048153 1.682950 -5.303835 -2.837575 
-0.014823 0.330378 -0.007319 -4.983685 3.356575 -1.308632 
0.262703 -0.259172 0.176186 4.761304 2.065808 3.378518 
-0.171546 -0.212711 0.057837 -4.978387 -3.758144 -0.212157 
0.239146 -0.068886 0.167620 4.654607 2.415767 3.244109 
0.004174 0.275950 0.257707 0.102828 1.884258 5.964926 
-0.193141 0.207449 -0.098557 5.118399 -2.350688 -2.694335 
0.410973 0.206277 -0.066828 3.298179 -5.213754 -1.086779 
0.083412 0.261166 -0.182580 0.978265 4.021225 -4.445314 
0.163541 0.291291 -0.037953 4.829588 2.935903 -2.505957 
0.242390 -0.345295 0.129239 4.166154 -3.455639 -2.892855 
0.150692 0.356671 0.070989 3.806457 3.436682 -2.377136 
0.377989 0.359967 -0.076764 -2.003011 2.906533 5.101871 
0.411281 0.309988 -0.034369 4.724880 3.675115 1.730497 
-0.178524 0.175177 0.056643 -4.901028 -2.947704 2.587653 
-0.161181 -0.276098 0.068667 -3.963846 -1.214290 -4.708289 
0.339359 0.172154 0.059833 5.868793 -1.207720 -1.749186 
-0.094583 0.163973 0.129770 -6.196623 -0.965508 0.177354 
-0.082317 -0.446946 0.146979 1.591993 -5.966705 -0.551703 
0.104096 0.088748 0.233877 -0.513323 3.339845 5.191437 
0.234731 -0.440099 0.031601 0.078730 -6.199888 0.675359 
0.347552 0.296104 -0.007546 -2.757530 4.400361 3.448505 
-0.060123 0.251233 0.224962 -4.424686 1.581970 3.971536 
0.042574 0.041694 -0.001306 -1.242488 -4.600134 -3.996243 
0.250516 -0.227248 0.150549 3.890777 4.789074 0.756697 
0.105474 0.204009 -0.193552 4.087543 -3.477094 -2.959090 
